1.143000 2.563000 0.028000 -0.676050 0.298129 -0.673851 
1.158000 2.602000 1.716000 -0.607699 0.298312 0.736011 
0.281000 1.965000 1.824000 0.000961 0.784713 0.619858 
0.797000 1.913000 1.975000 -0.225217 0.749771 0.622191 
0.671000 1.634000 2.278000 -0.297079 0.768516 0.566681 
0.161000 1.699000 2.112000 -0.084066 0.655470 0.750528 
0.829000 1.522000 2.625000 -0.468386 0.751528 0.464564 
0.494000 0.834000 2.889000 -0.719484 0.217316 0.659633 
-0.207000 0.942000 2.402000 -0.238282 0.306337 0.921618 
-0.792000 0.363000 2.799000 0.284086 0.646214 0.708309 
-1.378000 0.687000 2.479000 -0.125004 0.878069 0.461918 
-0.851000 1.299000 2.049000 -0.416625 0.443122 0.793768 
-1.203000 0.880000 2.179000 -0.284904 0.703505 0.651084 
-1.722000 1.039000 0.953000 -0.519587 0.853932 0.028799 
-1.346000 1.450000 0.881000 -0.795702 0.603820 -0.047535 
-2.113000 0.944000 0.539000 -0.256326 0.953646 0.157659 
0.626000 0.437000 3.092000 -0.654073 0.051314 0.754689 
-0.661000 -0.034000 3.003000 0.346091 0.460106 0.817633 
0.176000 -0.580000 3.406000 -0.259600 0.788151 0.558055 
1.914000 -0.104000 3.180000 0.410728 -0.376499 0.830392 
1.465000 -1.122000 3.494000 0.703397 0.360275 0.612728 
2.373000 -1.061000 3.004000 0.082197 0.317244 0.944775 
2.398000 -2.152000 3.024000 0.083462 -0.235374 0.968315 
1.487000 -2.114000 3.513000 0.722706 -0.361992 0.588777 
2.270000 -2.512000 2.957000 0.090002 -0.219743 0.971397 
2.587000 -2.587000 0.474000 0.178782 -0.673103 -0.717614 
2.442000 -2.908000 0.638000 0.142762 -0.512375 -0.846812 
2.261000 -2.395000 0.136000 0.178702 -0.791458 -0.584517 
2.659000 -2.534000 0.435000 0.238621 -0.677057 -0.696171 
2.337000 -2.338000 0.096000 0.247801 -0.805944 -0.537633 
2.372000 -2.207000 -0.277000 0.286998 -0.928948 -0.233854 
3.255000 -2.062000 0.375000 0.498845 -0.458415 -0.735534 
2.914000 -1.778000 -0.332000 0.696747 -0.648855 -0.305827 
4.114000 -1.431000 -0.487000 -0.274169 -0.957032 -0.094451 
3.844000 -0.995000 -1.318000 -0.383723 -0.793905 -0.471669 
2.669000 -1.383000 -1.088000 0.527315 -0.428291 -0.733830 
3.550000 -0.682000 -1.659000 -0.278596 -0.884316 -0.374660 
3.440000 -0.625000 -1.754000 -0.191321 -0.969379 -0.153951 
2.577000 -1.334000 -1.168000 0.425309 -0.360991 -0.829939 
3.326000 -0.605000 -2.284000 -0.254136 -0.964444 0.072547 
2.373000 0.074000 -2.424000 -0.867468 -0.495301 0.046642 
1.710000 -0.716000 -1.295000 -0.294221 0.120080 -0.948164 
1.963000 0.243000 -1.608000 -0.562983 -0.509528 -0.650716 
2.764000 1.993000 -2.625000 -0.702931 0.706592 -0.081334 
2.355000 2.163000 -1.809000 -0.353648 0.655298 -0.667471 
3.084000 3.172000 -2.709000 -0.968819 -0.222917 0.108153 
3.253000 3.647000 -2.039000 -0.856938 0.068568 0.510839 
2.524000 2.638000 -1.139000 -0.257869 0.924031 -0.282260 
3.310000 3.113000 -1.249000 -0.818094 0.569576 -0.079410 
3.317000 3.181000 -0.902000 -0.753755 0.656494 -0.029484 
2.531000 2.706000 -0.792000 -0.162596 0.961693 -0.220704 
2.248000 3.125000 -0.078000 0.086478 0.720457 -0.688087 
1.306000 2.648000 -0.094000 -0.627917 0.328319 -0.705639 
1.495000 2.182000 -0.810000 -0.705555 0.647888 -0.287113 
1.351000 2.311000 -0.300000 -0.712166 0.487170 -0.505455 
4.084000 3.217000 0.193000 -0.196384 0.625456 0.755141 
2.945000 3.158000 0.918000 0.652339 0.751645 0.097384 
3.243000 2.899000 0.867000 0.588791 0.773145 0.235738 
2.007000 2.191000 2.183000 -0.076090 0.477123 0.875536 
1.874000 2.544000 2.057000 -0.143991 0.273692 0.950978 
1.653000 1.706000 2.704000 0.007549 0.882273 0.470677 
1.194000 1.716000 2.560000 -0.272941 0.867674 0.415506 
1.414000 2.554000 1.914000 -0.396108 0.271916 0.877018 
1.092000 1.858000 2.203000 -0.326505 0.753616 0.570489 
2.631000 1.837000 2.347000 0.079801 0.409526 0.908802 
2.194000 1.400000 2.845000 0.473275 0.619926 0.625861 
2.998000 1.701000 2.410000 -0.016109 0.362731 0.931755 
3.370000 0.622000 2.349000 0.253357 -0.394938 0.883082 
2.565000 0.321000 2.785000 0.775868 -0.158043 0.610780 
3.089000 -0.593000 2.569000 0.424282 0.537751 0.728567 
4.033000 0.386000 1.673000 0.680796 -0.567427 0.463189 
3.819000 -0.853000 1.825000 0.877960 0.377417 0.294519 
4.678000 -0.221000 0.963000 0.187105 -0.153663 0.970247 
4.462000 1.417000 1.279000 0.969628 0.191274 0.152433 
5.151000 0.913000 0.531000 0.452424 0.527779 0.718862 
5.110000 1.893000 0.359000 0.455703 -0.187915 0.870071 
5.873000 1.780000 -0.471000 0.820704 -0.307870 0.481311 
5.914000 0.800000 -0.299000 0.847329 0.455203 0.273539 
6.609000 1.714000 -1.077000 0.306972 -0.339139 0.889243 
6.375000 0.738000 -2.433000 0.075085 -0.991329 -0.107833 
5.680000 -0.177000 -1.655000 0.713805 -0.254459 -0.652483 
5.535000 0.203000 -2.023000 0.680944 -0.482887 -0.550578 
4.891000 -0.313000 -2.228000 0.489701 -0.736904 -0.466010 
5.084000 -0.654000 -1.845000 0.306431 -0.552988 -0.774793 
4.667000 -0.317000 -2.723000 0.584801 -0.795967 -0.156345 
3.615000 -0.663000 -2.355000 -0.044086 -0.998575 0.030085 
4.033000 -1.000000 -1.478000 -0.310199 -0.773217 -0.553093 
3.753000 -0.687000 -1.831000 -0.194816 -0.929766 -0.312381 
5.286000 0.281000 -2.456000 0.699289 -0.549781 -0.456876 
5.032000 0.232000 -2.933000 0.826693 -0.469230 -0.310485 
6.144000 0.810000 -2.833000 -0.038550 -0.947209 -0.318292 
5.590000 2.023000 -3.693000 -0.382152 -0.194006 -0.903505 
4.478000 1.445000 -3.792000 0.489689 0.301840 -0.817984 
4.798000 2.623000 -3.876000 0.197823 -0.632567 -0.748816 
6.205000 2.786000 -3.849000 -0.043232 0.207661 -0.977245 
5.412000 3.387000 -4.032000 0.482199 -0.220292 -0.847913 
5.834000 3.174000 -3.790000 0.257343 -0.023570 -0.966033 
5.752000 4.855000 -2.772000 0.226722 0.838925 -0.494774 
5.337000 4.941000 -3.091000 0.442934 0.865861 -0.232583 
5.949000 5.157000 -2.387000 0.033357 0.717618 -0.695638 
4.625000 4.907000 -1.157000 -0.824129 0.553736 0.119109 
4.012000 4.690000 -1.861000 -0.400942 0.710622 0.578154 
4.320000 4.583000 -1.441000 -0.628963 0.679539 0.377666 
3.868000 3.945000 -1.329000 -0.774485 0.512428 0.370932 
3.595000 4.100000 -1.757000 -0.689982 0.340964 0.638489 
3.652000 3.566000 -0.967000 -0.743922 0.656445 0.125140 
4.313000 4.121000 -0.828000 -0.682164 0.522412 0.511603 
4.063000 3.728000 -0.504000 -0.465250 0.771874 0.433304 
4.619000 4.479000 -0.591000 -0.822070 0.279847 0.495870 
6.354000 3.246000 -0.148000 0.325448 -0.530327 0.782839 
5.798000 2.495000 -0.062000 0.675093 -0.040340 0.736628 
6.190000 2.787000 -0.349000 0.520813 -0.273822 0.808564 
6.314000 2.144000 -0.755000 0.505700 -0.463834 0.727410 
5.912000 1.901000 -0.436000 0.760172 -0.408826 0.504976 
6.648000 1.835000 -1.043000 0.292422 -0.368899 0.882271 
6.918000 2.857000 -0.937000 0.768813 -0.249979 0.588588 
7.207000 2.494000 -1.212000 0.649509 0.060029 0.757980 
7.027000 3.311000 -0.691000 0.767904 -0.499705 0.400772 
7.244000 4.182000 -1.985000 0.907931 0.097790 -0.407552 
7.424000 3.365000 -2.506000 0.778406 0.625591 -0.052151 
7.153000 3.800000 -2.337000 0.894782 0.381940 -0.231275 
3.855000 2.302000 1.373000 0.556790 0.801614 0.217715 
4.442000 2.866000 0.461000 0.000746 0.405886 0.913924 
3.619000 2.531000 1.149000 0.553685 0.776355 0.301173 
-7.097000 -0.048000 -0.805000 -0.435784 0.862438 0.257474 
-6.931000 0.024000 -0.509000 -0.586400 0.809470 -0.029894 
-7.540000 -0.181000 -0.914000 -0.442389 0.771677 0.456953 
-7.317000 -0.208000 -0.650000 -0.551580 0.771361 0.317429 
-7.160000 -0.142000 -0.347000 -0.710666 0.703318 0.017248 
-7.088000 0.008000 -0.043000 -0.780414 0.604391 -0.160205 
-7.717000 -0.430000 -0.776000 -0.577685 0.573906 0.580440 
-7.481000 -0.440000 -0.521000 -0.710863 0.546103 0.443222 
-7.331000 -0.385000 -0.213000 -0.862366 0.487467 0.136750 
-7.285000 -0.270000 0.111000 -0.912228 0.403866 -0.068791 
-7.819000 -0.735000 -0.678000 -0.692928 0.298535 0.656299 
-7.576000 -0.724000 -0.430000 -0.802438 0.271191 0.531554 
-7.430000 -0.681000 -0.119000 -0.949367 0.225053 0.219210 
-7.399000 -0.610000 0.220000 -0.987187 0.158899 0.014582 
-7.836000 -1.067000 -0.631000 -0.714822 0.015981 0.699124 
-7.592000 -1.033000 -0.386000 -0.818465 -0.028692 0.573840 
-7.447000 -1.003000 -0.073000 -0.963718 -0.062179 0.259581 
-7.418000 -0.980000 0.272000 -0.996269 -0.065898 0.055720 
-7.767000 -1.395000 -0.638000 -0.668813 -0.252126 0.699372 
-7.528000 -1.339000 -0.393000 -0.756654 -0.325071 0.567278 
-7.380000 -1.322000 -0.080000 -0.903948 -0.345108 0.252543 
-7.342000 -1.346000 0.265000 -0.933332 -0.354545 0.056478 
-7.619000 -1.690000 -0.699000 -0.510693 -0.539316 0.669575 
-7.390000 -1.614000 -0.450000 -0.623393 -0.590274 0.512793 
-7.236000 -1.608000 -0.139000 -0.774974 -0.599356 0.200470 
-7.176000 -1.674000 0.197000 -0.802914 -0.596045 -0.007747 
-7.405000 -1.925000 -0.808000 -0.338084 -0.745091 0.574925 
-7.191000 -1.832000 -0.551000 -0.429025 -0.802286 0.415061 
-7.028000 -1.835000 -0.244000 -0.589723 -0.800540 0.106593 
-6.937000 -1.935000 0.075000 -0.634631 -0.765590 -0.105429 
-6.948000 -1.973000 -0.688000 -0.330484 -0.889425 0.315758 
-6.775000 -1.983000 -0.387000 -0.484155 -0.874913 0.010976 
-7.181000 -2.210000 -1.230000 -0.223747 -0.900614 0.372601 
-6.795000 -2.313000 -1.251000 -0.297370 -0.894112 0.334866 
-7.227000 -2.267000 -1.528000 -0.249413 -0.959854 0.128353 
-6.847000 -2.378000 -1.584000 -0.333277 -0.938629 0.088898 
-7.280000 -2.246000 -1.830000 -0.280102 -0.951640 -0.126194 
-6.905000 -2.353000 -1.921000 -0.362635 -0.920918 -0.142846 
-7.334000 -2.146000 -2.116000 -0.314363 -0.875890 -0.366050 
-6.966000 -2.243000 -2.239000 -0.393208 -0.845812 -0.360541 
-7.388000 -1.976000 -2.366000 -0.349980 -0.737913 -0.577060 
-7.026000 -2.053000 -2.517000 -0.439600 -0.707843 -0.552910 
-7.437000 -1.745000 -2.564000 -0.386446 -0.570858 -0.724418 
-7.080000 -1.796000 -2.738000 -0.494811 -0.504417 -0.707619 
-7.477000 -1.471000 -2.696000 -0.402666 -0.364042 -0.839842 
-7.125000 -1.490000 -2.885000 -0.517640 -0.306361 -0.798869 
-7.507000 -1.170000 -2.753000 -0.461275 -0.106706 -0.880817 
-7.159000 -1.155000 -2.949000 -0.545211 -0.073359 -0.835083 
-7.524000 -0.864000 -2.732000 -0.497298 0.145865 -0.855230 
-7.178000 -0.814000 -2.926000 -0.549425 0.163478 -0.819395 
-7.528000 -0.573000 -2.635000 -0.499152 0.360553 -0.787939 
-7.181000 -0.489000 -2.817000 -0.545550 0.384432 -0.744706 
-7.517000 -0.316000 -2.467000 -0.493826 0.560631 -0.664702 
-7.169000 -0.203000 -2.630000 -0.541952 0.578324 -0.609779 
-7.492000 -0.110000 -2.240000 -0.458813 0.743905 -0.485897 
-7.142000 0.026000 -2.377000 -0.526757 0.730837 -0.434056 
-7.456000 0.030000 -1.969000 -0.406625 0.868345 -0.283960 
-7.102000 0.183000 -2.075000 -0.503588 0.833721 -0.226513 
-7.411000 0.096000 -1.672000 -0.371073 0.926546 -0.061787 
-7.051000 0.256000 -1.744000 -0.444706 0.895452 0.020042 
-7.359000 0.082000 -1.369000 -0.336498 0.922179 0.190670 
-6.994000 0.241000 -1.407000 -0.404035 0.877302 0.259030 
-6.652000 -2.050000 -0.529000 -0.438567 -0.883645 0.163796 
-6.538000 -2.109000 -0.539000 -0.478245 -0.874947 0.075830 
-6.403000 -2.392000 -1.133000 -0.302362 -0.906867 0.293546 
-6.091000 -2.406000 -0.729000 -0.349150 -0.926908 0.137610 
-6.156000 -2.490000 -1.332000 -0.147579 -0.974093 0.171357 
-5.835000 -2.507000 -0.935000 -0.194332 -0.980549 0.027549 
-5.902000 -2.517000 -1.543000 0.026114 -0.999355 0.024634 
-5.572000 -2.536000 -1.154000 -0.049503 -0.992482 -0.111934 
-5.653000 -2.473000 -1.757000 0.197616 -0.973926 -0.111429 
-5.314000 -2.490000 -1.376000 0.108790 -0.960819 -0.254933 
-5.421000 -2.360000 -1.964000 0.356471 -0.902451 -0.241891 
-5.073000 -2.373000 -1.590000 0.257718 -0.878966 -0.401248 
-5.509000 -2.318000 -2.296000 0.397157 -0.894966 -0.203228 
-5.368000 -2.204000 -2.653000 0.314982 -0.937434 -0.148339 
-5.823000 -2.363000 -2.453000 0.185930 -0.933191 -0.307547 
-5.650000 -2.244000 -2.793000 0.089039 -0.964412 -0.248962 
-6.134000 -2.314000 -2.612000 -0.055994 -0.906980 -0.417434 
-5.929000 -2.199000 -2.936000 -0.116695 -0.922034 -0.369100 
-6.421000 -2.173000 -2.764000 -0.237994 -0.819350 -0.521559 
-6.186000 -2.074000 -3.072000 -0.333738 -0.819751 -0.465433 
-6.662000 -1.952000 -2.897000 -0.404825 -0.662625 -0.630115 
-6.403000 -1.875000 -3.191000 -0.513222 -0.641920 -0.569686 
-6.842000 -1.666000 -3.001000 -0.541331 -0.461529 -0.702817 
-6.564000 -1.619000 -3.285000 -0.617672 -0.436017 -0.654500 
-6.946000 -1.336000 -3.070000 -0.615295 -0.239458 -0.751047 
-6.657000 -1.322000 -3.347000 -0.698994 -0.199992 -0.686593 
-6.967000 -0.984000 -3.098000 -0.635660 0.001151 -0.771968 
-6.677000 -1.007000 -3.372000 -0.716274 0.033497 -0.697014 
-6.905000 -0.637000 -3.083000 -0.596636 0.254642 -0.761041 
-6.621000 -0.695000 -3.359000 -0.679810 0.285082 -0.675712 
-6.763000 -0.318000 -3.027000 -0.516346 0.464315 -0.719582 
-6.494000 -0.409000 -3.309000 -0.560108 0.522050 -0.643229 
-6.552000 -0.051000 -2.934000 -0.379055 0.642848 -0.665631 
-6.304000 -0.169000 -3.225000 -0.377106 0.713709 -0.590263 
-6.286000 0.145000 -2.809000 -0.188109 0.803303 -0.565084 
-6.065000 0.007000 -3.113000 -0.196763 0.850143 -0.488407 
-5.985000 0.257000 -2.662000 0.011912 0.879309 -0.476103 
-5.795000 0.108000 -2.981000 0.019245 0.919120 -0.393508 
-5.669000 0.277000 -2.504000 0.252571 0.899968 -0.355340 
-5.512000 0.125000 -2.839000 0.272473 0.917450 -0.289904 
-5.087000 0.165000 -2.182000 0.206525 0.865941 -0.455514 
-4.788000 0.213000 -2.074000 -0.059844 0.814637 -0.576875 
-5.148000 0.252000 -2.055000 0.193553 0.829389 -0.524071 
-4.850000 0.301000 -1.945000 -0.100338 0.771106 -0.628751 
-5.679000 0.452000 -2.012000 0.215157 0.925490 -0.311730 
-5.340000 0.540000 -1.640000 0.058399 0.911818 -0.406421 
-5.947000 0.530000 -1.793000 0.034019 0.988676 -0.146159 
-5.619000 0.621000 -1.413000 -0.108285 0.959088 -0.261582 
-6.219000 0.527000 -1.563000 -0.151563 0.988388 0.010865 
-5.901000 0.618000 -1.175000 -0.283945 0.952904 -0.106529 
-6.480000 0.442000 -1.336000 -0.313683 0.939560 0.137222 
-6.170000 0.530000 -0.939000 -0.450135 0.892368 0.032529 
-6.615000 0.223000 -0.694000 -0.544724 0.836855 0.054307 
-6.818000 0.092000 -0.659000 -0.561144 0.827532 -0.017553 
-6.362000 0.513000 -0.149000 -0.408628 0.884434 -0.225387 
-6.160000 0.541000 -0.597000 -0.448038 0.892652 -0.049329 
-6.092000 0.625000 -0.015000 -0.227495 0.965431 -0.127233 
-5.880000 0.656000 -0.459000 -0.267148 0.963083 0.033202 
-5.808000 0.671000 0.128000 -0.046330 0.998283 -0.035844 
-5.586000 0.705000 -0.310000 -0.090506 0.988953 0.117389 
-5.784000 0.694000 0.451000 -0.012786 0.993937 -0.109208 
-5.508000 0.787000 0.847000 -0.135047 0.962136 -0.236762 
-6.043000 0.672000 0.632000 -0.191263 0.981504 0.008252 
-5.777000 0.764000 1.035000 -0.304742 0.946310 -0.107838 
-6.291000 0.586000 0.811000 -0.360003 0.926701 0.107808 
-6.033000 0.675000 1.220000 -0.464703 0.885450 -0.005400 
-6.515000 0.439000 0.980000 -0.505327 0.836800 0.210741 
-6.266000 0.522000 1.395000 -0.614961 0.781596 0.104548 
-6.708000 0.238000 1.132000 -0.614859 0.720074 0.321623 
-6.465000 0.314000 1.553000 -0.733545 0.647665 0.206014 
-6.860000 -0.010000 1.260000 -0.728421 0.545668 0.414306 
-6.622000 0.058000 1.685000 -0.816919 0.496899 0.292804 
-6.778000 -0.331000 1.746000 -0.914459 0.291949 0.280233 
-7.061000 -0.672000 1.392000 -0.848075 0.136751 0.511926 
-6.862000 -0.665000 1.774000 -0.960872 0.109721 0.254334 
-6.842000 -0.637000 2.204000 -0.996689 0.074450 -0.032684 
-7.038000 -1.065000 1.412000 -0.847207 -0.141667 0.512027 
-6.842000 -1.009000 1.793000 -0.943786 -0.190969 0.269811 
-6.821000 -0.989000 2.223000 -0.974148 -0.224942 -0.020880 
-6.719000 -1.332000 1.799000 -0.896012 -0.379236 0.230959 
-6.739000 -1.741000 1.339000 -0.682821 -0.574242 0.451665 
-6.497000 -1.736000 1.767000 -0.719000 -0.611530 0.330258 
-6.528000 -2.001000 1.218000 -0.544583 -0.740813 0.393224 
-6.279000 -2.006000 1.642000 -0.593701 -0.762463 0.257234 
-6.276000 -2.199000 1.062000 -0.377097 -0.877577 0.296067 
-6.017000 -2.210000 1.480000 -0.426980 -0.890165 0.159044 
-5.996000 -2.323000 0.880000 -0.191325 -0.964170 0.183768 
-5.727000 -2.338000 1.292000 -0.251080 -0.967249 0.037250 
-5.703000 -2.367000 0.682000 0.003624 -0.998498 0.054668 
-5.424000 -2.384000 1.087000 -0.061350 -0.993185 -0.099093 
-5.698000 -2.390000 0.335000 0.048675 -0.991837 0.117860 
-5.471000 -2.466000 -0.096000 -0.062593 -0.968320 0.241742 
-5.986000 -2.383000 0.187000 -0.142329 -0.989479 0.025968 
-5.770000 -2.459000 -0.249000 -0.231092 -0.964151 0.130423 
-6.266000 -2.308000 0.040000 -0.328473 -0.941752 -0.072177 
-6.060000 -2.381000 -0.402000 -0.396971 -0.916597 0.047586 
-5.154000 -2.284000 0.458000 0.190205 -0.976554 0.100816 
-4.703000 -2.195000 0.423000 0.220907 -0.973909 0.051971 
-4.311000 -2.171000 0.187000 0.050779 -0.977421 0.205109 
-4.236000 -2.205000 0.051000 -0.071585 -0.968257 0.239488 
-4.636000 -2.454000 -0.467000 0.212403 -0.957780 0.193756 
-4.118000 -2.396000 -0.514000 0.032523 -0.981516 0.188595 
-4.663000 -2.490000 -0.820000 0.202670 -0.979078 -0.018193 
-4.146000 -2.431000 -0.867000 0.008896 -0.999597 -0.026953 
-4.700000 -2.449000 -1.171000 0.189295 -0.954921 -0.228679 
-4.182000 -2.390000 -1.218000 -0.007737 -0.971984 -0.234920 
-4.743000 -2.333000 -1.505000 0.183583 -0.878526 -0.441009 
-4.225000 -2.275000 -1.552000 -0.028526 -0.899104 -0.436805 
-4.954000 -2.030000 -2.151000 0.377042 -0.872995 -0.309384 
-5.015000 -2.065000 -2.135000 0.473541 -0.848723 -0.235430 
-4.817000 -1.940000 -2.282000 0.391514 -0.904246 -0.170456 
-4.548000 -1.955000 -2.042000 0.160802 -0.890355 -0.425923 
-4.741000 -1.894000 -2.366000 0.309689 -0.928654 -0.204192 
-4.468000 -1.907000 -2.130000 0.016963 -0.915020 -0.403052 
-4.698000 -1.852000 -2.536000 0.405138 -0.898255 -0.170297 
-4.398000 -1.800000 -2.446000 0.129233 -0.952137 -0.277009 
-4.094000 -1.847000 -2.371000 -0.172260 -0.909065 -0.379378 
-4.883000 -1.888000 -2.954000 0.557629 -0.779873 -0.284337 
-4.627000 -1.754000 -2.823000 0.422306 -0.833071 -0.357281 
-4.328000 -1.704000 -2.728000 0.124178 -0.881910 -0.454768 
-4.017000 -1.743000 -2.678000 -0.185911 -0.842210 -0.506082 
-3.725000 -1.866000 -2.679000 -0.372264 -0.764811 -0.525817 
-4.828000 -1.673000 -3.226000 0.597169 -0.601321 -0.530850 
-4.578000 -1.563000 -3.064000 0.474279 -0.629582 -0.615374 
-4.281000 -1.517000 -2.964000 0.176687 -0.673447 -0.717809 
-3.966000 -1.539000 -2.936000 -0.137693 -0.649835 -0.747499 
-3.664000 -1.626000 -2.983000 -0.350049 -0.579347 -0.736086 
-4.806000 -1.377000 -3.416000 0.613817 -0.349364 -0.707936 
-4.559000 -1.301000 -3.232000 0.495195 -0.350294 -0.795032 
-4.262000 -1.261000 -3.128000 0.198360 -0.387992 -0.900064 
-3.945000 -1.259000 -3.115000 -0.119619 -0.387122 -0.914236 
-3.640000 -1.297000 -3.194000 -0.332868 -0.337323 -0.880575 
-4.820000 -1.036000 -3.500000 0.604568 -0.028042 -0.796060 
-4.571000 -0.999000 -3.307000 0.482979 -0.026772 -0.875223 
-4.274000 -0.964000 -3.201000 0.185156 -0.057958 -0.980999 
-3.958000 -0.936000 -3.195000 -0.132433 -0.083946 -0.987631 
-3.655000 -0.916000 -3.288000 -0.344136 -0.078049 -0.935670 
-4.867000 -0.689000 -3.469000 0.576804 0.293083 -0.762496 
-4.613000 -0.691000 -3.279000 0.438471 0.302363 -0.846357 
-4.315000 -0.663000 -3.174000 0.139049 0.276619 -0.950867 
-4.003000 -0.607000 -3.165000 -0.173991 0.223787 -0.958982 
-3.708000 -0.530000 -3.253000 -0.371052 0.185007 -0.909996 
-4.943000 -0.376000 -3.327000 0.531048 0.567105 -0.629587 
-4.680000 -0.414000 -3.153000 0.366580 0.598012 -0.712742 
-4.380000 -0.392000 -3.051000 0.066262 0.577718 -0.813543 
-4.074000 -0.312000 -3.031000 -0.240469 0.500162 -0.831873 
-3.792000 -0.181000 -3.094000 -0.425027 0.444233 -0.788675 
-5.038000 -0.134000 -3.089000 0.403314 0.818816 -0.408507 
-4.764000 -0.200000 -2.943000 0.276517 0.827944 -0.487900 
-4.463000 -0.182000 -2.845000 -0.025396 0.812038 -0.583052 
-4.164000 -0.083000 -2.806000 -0.325256 0.713715 -0.620338 
-3.898000 0.088000 -2.830000 -0.502076 0.628088 -0.594495 
-4.856000 -0.074000 -2.673000 0.187078 0.924034 -0.333411 
-4.552000 -0.059000 -2.581000 -0.085160 0.896931 -0.433892 
-4.262000 0.052000 -2.518000 -0.370326 0.771976 -0.516635 
-4.907000 -0.014000 -2.511000 0.188675 0.933360 -0.305355 
-4.644000 0.082000 -2.284000 -0.094579 0.858658 -0.503746 
-4.997000 0.033000 -2.428000 0.199737 0.911736 -0.358948 
-4.739000 0.131000 -2.197000 -0.078081 0.823789 -0.561494 
-4.172000 0.542000 -1.945000 -0.301582 0.785366 -0.540600 
-3.808000 0.497000 -2.309000 -0.410683 0.835989 -0.363953 
-3.919000 0.725000 -1.721000 -0.152795 0.914365 -0.374954 
-3.563000 0.674000 -2.093000 -0.243161 0.938489 -0.245177 
-3.641000 0.822000 -1.474000 -0.007304 0.974221 -0.225478 
-3.294000 0.768000 -1.855000 -0.085151 0.992138 -0.091710 
-2.973000 0.765000 -1.287000 0.003103 0.999995 0.000382 
-2.893000 0.769000 -0.902000 -0.078108 0.996944 -0.000914 
-3.550000 0.901000 -0.662000 0.127975 0.991599 -0.018810 
-3.303000 0.926000 -0.216000 0.030551 0.983383 -0.178954 
-3.838000 0.906000 -0.503000 -0.048270 0.996677 0.065614 
-3.590000 0.931000 -0.057000 -0.147003 0.986730 -0.068949 
-4.118000 0.846000 -0.343000 -0.213889 0.965221 0.150331 
-3.871000 0.871000 0.102000 -0.317091 0.948295 0.013816 
-4.526000 0.608000 0.098000 -0.242290 0.966743 0.081870 
-4.687000 0.608000 0.399000 -0.052493 0.981856 -0.182218 
-4.583000 0.602000 0.067000 -0.072561 0.991619 0.106898 
-4.744000 0.602000 0.369000 0.046674 0.977327 -0.206527 
-4.485000 0.809000 -0.564000 -0.187231 0.965985 0.178372 
-5.003000 0.751000 -0.518000 -0.002965 0.991388 0.130924 
-4.519000 0.827000 -0.918000 -0.203878 0.978474 -0.031981 
-5.036000 0.769000 -0.871000 -0.016706 0.996585 -0.080861 
-4.544000 0.768000 -1.267000 -0.216240 0.946213 -0.240667 
-5.061000 0.710000 -1.221000 -0.026514 0.956958 -0.289013 
-4.559000 0.636000 -1.597000 -0.214726 0.868131 -0.447483 
-5.076000 0.577000 -1.550000 -0.035931 0.875051 -0.482695 
-4.951000 0.599000 0.242000 0.075612 0.996722 -0.028776 
-5.261000 0.624000 0.260000 0.081538 0.989597 -0.118530 
-4.472000 0.651000 0.493000 -0.117159 0.975270 -0.187409 
-4.262000 0.736000 0.851000 -0.166240 0.976521 -0.137007 
-4.653000 0.875000 1.414000 0.120270 0.990448 -0.067433 
-4.158000 0.856000 1.452000 -0.047750 0.997371 -0.054498 
-4.677000 0.855000 1.772000 0.094624 0.982481 0.160552 
-4.181000 0.837000 1.798000 -0.076575 0.981787 0.173868 
-4.694000 0.755000 2.117000 0.078528 0.921230 0.381011 
-4.198000 0.740000 2.131000 -0.082841 0.917620 0.388729 
-4.704000 0.580000 2.431000 0.076047 0.813816 0.576126 
-4.207000 0.571000 2.434000 -0.087111 0.807750 0.583054 
-4.705000 0.340000 2.698000 0.079639 0.678761 0.730028 
-4.209000 0.339000 2.692000 -0.086554 0.657520 0.748449 
-4.944000 0.334000 2.763000 0.205973 0.703808 0.679874 
-5.208000 0.198000 3.020000 0.276369 0.742473 0.610208 
-5.256000 0.525000 2.588000 0.043573 0.819376 0.571599 
-5.478000 0.363000 2.868000 0.042458 0.879126 0.474695 
-5.604000 0.599000 2.394000 -0.197633 0.862657 0.465580 
-5.779000 0.427000 2.700000 -0.202500 0.911133 0.358929 
-5.956000 0.551000 2.200000 -0.433100 0.837938 0.332090 
-6.085000 0.385000 2.532000 -0.432729 0.873116 0.224531 
-6.281000 0.384000 2.024000 -0.630126 0.743132 0.225156 
-6.366000 0.240000 2.380000 -0.648644 0.752461 0.114293 
-6.547000 0.113000 1.883000 -0.805795 0.574066 0.145405 
-6.597000 0.006000 2.257000 -0.826066 0.563560 0.003904 
-4.615000 -0.051000 2.943000 0.254651 0.454504 0.853568 
-4.909000 -0.424000 3.295000 0.504653 0.285412 0.814779 
-4.531000 -0.414000 3.092000 0.252458 0.245833 0.935858 
-4.106000 -0.359000 3.061000 -0.024728 0.199106 0.979666 
-4.881000 -0.833000 3.319000 0.519335 -0.069646 0.851728 
-4.503000 -0.814000 3.115000 0.275958 -0.103441 0.955587 
-4.075000 -0.814000 3.088000 0.009632 -0.123118 0.992345 
-4.536000 -1.200000 3.010000 0.224389 -0.312496 0.923036 
-5.093000 -1.520000 3.119000 0.377961 -0.609169 0.697179 
-4.811000 -1.648000 2.877000 0.269471 -0.598871 0.754148 
-5.339000 -1.737000 2.987000 0.167471 -0.771702 0.613538 
-5.096000 -1.899000 2.725000 0.084955 -0.747645 0.658643 
-5.632000 -1.860000 2.828000 -0.037653 -0.869496 0.492504 
-5.433000 -2.041000 2.541000 -0.127198 -0.841182 0.525579 
-5.942000 -1.876000 2.657000 -0.267813 -0.899517 0.345173 
-5.791000 -2.059000 2.344000 -0.342608 -0.847336 0.405760 
-6.240000 -1.783000 2.490000 -0.506476 -0.841239 0.189205 
-6.136000 -1.953000 2.151000 -0.565290 -0.771809 0.291132 
-6.500000 -1.592000 2.343000 -0.732017 -0.674459 0.096208 
-6.435000 -1.731000 1.981000 -0.747575 -0.636777 0.188800 
-4.570000 -1.626000 2.812000 0.182479 -0.547318 0.816789 
-4.078000 -1.559000 2.802000 0.035014 -0.600592 0.798789 
-4.533000 -1.894000 2.573000 0.201447 -0.712365 0.672276 
-4.043000 -1.817000 2.571000 0.050997 -0.763136 0.644222 
-4.497000 -2.101000 2.279000 0.218660 -0.839519 0.497390 
-4.008000 -2.017000 2.288000 0.066414 -0.886795 0.457366 
-4.464000 -2.236000 1.946000 0.233982 -0.925197 0.298769 
-3.976000 -2.148000 1.966000 0.081902 -0.965725 0.246306 
-4.434000 -2.293000 1.591000 0.247362 -0.965252 0.084261 
-3.948000 -2.202000 1.623000 0.103096 -0.994448 0.021071 
-4.062000 -2.165000 1.012000 0.042298 -0.996489 -0.072248 
-4.283000 -2.148000 0.643000 -0.040683 -0.998866 -0.024713 
-3.326000 -2.243000 0.993000 -0.011753 -0.964050 0.265461 
-3.565000 -2.179000 1.456000 0.106820 -0.990081 0.091269 
-2.965000 -2.135000 1.172000 0.234480 -0.902898 0.360270 
-3.216000 -2.075000 1.628000 0.325817 -0.923189 0.203873 
-2.282000 -1.827000 1.364000 0.037230 -0.887820 0.458683 
-1.927000 -1.843000 1.477000 -0.314649 -0.896341 0.312360 
-1.623000 -1.973000 1.651000 -0.588737 -0.796247 0.139212 
-1.414000 -2.199000 1.863000 -0.825002 -0.564724 -0.021396 
-2.194000 -1.931000 1.135000 -0.020500 -0.929675 0.367809 
-1.857000 -1.926000 1.296000 -0.366840 -0.899407 0.237686 
-1.554000 -2.054000 1.473000 -0.636156 -0.769377 0.058009 
-1.329000 -2.299000 1.643000 -0.849108 -0.516342 -0.111384 
-2.162000 -1.977000 1.008000 0.102813 -0.946317 0.306454 
-1.798000 -2.007000 1.056000 -0.234402 -0.941141 0.243534 
-1.475000 -2.157000 1.155000 -0.578830 -0.801775 0.148705 
-2.115000 -2.066000 0.676000 0.031803 -0.976626 0.212579 
-1.753000 -2.091000 0.746000 -0.323716 -0.929839 0.174952 
-1.428000 -2.246000 0.823000 -0.635956 -0.763436 0.112807 
-2.159000 -2.095000 0.551000 0.147038 -0.985347 0.086433 
-1.840000 -2.114000 0.506000 -0.157630 -0.980821 0.114638 
-1.539000 -2.231000 0.490000 -0.467252 -0.877882 0.104874 
-1.289000 -2.433000 0.507000 -0.726067 -0.682512 0.083694 
-2.174000 -2.108000 0.111000 0.071201 -0.997362 -0.014147 
-1.853000 -2.125000 0.135000 -0.256155 -0.965846 -0.039073 
-1.552000 -2.241000 0.136000 -0.529764 -0.847932 -0.019013 
-1.302000 -2.445000 0.114000 -0.749785 -0.661454 -0.017345 
-2.247000 -2.113000 -0.249000 0.102509 -0.994219 0.031945 
-2.628000 -2.158000 -0.567000 0.068458 -0.995987 0.057649 
-3.201000 -2.332000 -0.089000 0.109349 -0.986403 -0.122688 
-3.448000 -2.357000 -0.535000 0.149058 -0.986872 0.062170 
-3.529000 -2.338000 0.094000 -0.090015 -0.995808 -0.016225 
-3.777000 -2.364000 -0.352000 -0.038666 -0.984131 0.173179 
-2.762000 -2.176000 -0.808000 0.088316 -0.994796 0.050812 
-2.837000 -2.204000 -1.170000 0.016055 -0.995713 0.091090 
-3.462000 -2.337000 -1.320000 0.142016 -0.982043 -0.124187 
-3.122000 -2.281000 -1.705000 0.014893 -0.999764 -0.015786 
-3.716000 -2.306000 -1.544000 -0.011083 -0.968274 -0.249644 
-3.367000 -2.251000 -1.922000 -0.161499 -0.974630 -0.154966 
-3.959000 -2.203000 -1.759000 -0.142233 -0.902272 -0.407033 
-3.602000 -2.153000 -2.130000 -0.297516 -0.906602 -0.299262 
-2.727000 -2.273000 -1.768000 0.008654 -0.999690 0.023354 
-2.303000 -2.300000 -1.541000 -0.105179 -0.990725 -0.086035 
-2.579000 -2.239000 -2.047000 0.114437 -0.978992 -0.168759 
-2.150000 -2.265000 -1.830000 -0.017552 -0.969499 -0.244467 
-2.441000 -2.141000 -2.317000 0.183109 -0.916394 -0.355941 
-2.007000 -2.163000 -2.110000 0.080631 -0.898561 -0.431377 
-2.319000 -1.983000 -2.565000 0.260082 -0.827991 -0.496777 
-1.881000 -2.000000 -2.366000 0.157052 -0.791476 -0.590677 
-2.218000 -1.772000 -2.780000 0.344423 -0.683017 -0.644097 
-1.776000 -1.781000 -2.589000 0.211799 -0.649296 -0.730449 
-2.142000 -1.516000 -2.953000 0.381511 -0.519447 -0.764607 
-1.697000 -1.516000 -2.769000 0.246731 -0.488717 -0.836827 
-2.094000 -1.227000 -3.078000 0.405037 -0.334173 -0.851042 
-1.648000 -1.217000 -2.898000 0.228276 -0.293551 -0.928288 
-2.078000 -0.917000 -3.148000 0.415121 -0.134074 -0.899833 
-1.631000 -0.895000 -2.970000 0.307886 -0.087026 -0.947435 
-2.092000 -0.600000 -3.161000 0.410030 0.071071 -0.909299 
-1.646000 -0.566000 -2.983000 0.285845 0.095433 -0.953512 
-2.137000 -0.288000 -3.115000 0.390148 0.274111 -0.879004 
-1.693000 -0.244000 -2.936000 0.204121 0.273097 -0.940081 
-2.211000 0.005000 -3.014000 0.356649 0.466919 -0.809190 
-1.769000 0.059000 -2.831000 0.195128 0.471045 -0.860257 
-2.311000 0.265000 -2.860000 0.279599 0.632947 -0.721943 
-1.873000 0.329000 -2.673000 0.151673 0.641160 -0.752270 
-2.432000 0.483000 -2.662000 0.208040 0.778845 -0.591709 
-1.998000 0.555000 -2.467000 0.071927 0.778639 -0.623337 
-2.569000 0.648000 -2.427000 0.117328 0.888105 -0.444414 
-2.140000 0.726000 -2.224000 -0.028259 0.885400 -0.463970 
-2.716000 0.754000 -2.166000 0.024057 0.960572 -0.276990 
-2.292000 0.835000 -1.953000 -0.113572 0.946943 -0.300667 
-2.868000 0.796000 -1.889000 -0.079013 0.992516 -0.093109 
-2.449000 0.879000 -1.666000 -0.220141 0.968723 -0.114511 
-1.604000 -2.230000 -0.370000 -0.358292 -0.916853 0.176088 
-1.304000 -2.415000 -0.155000 -0.671951 -0.740362 -0.018616 
-1.783000 -2.327000 -0.909000 -0.083339 -0.979169 0.185154 
-1.442000 -2.343000 -0.676000 -0.294548 -0.955636 0.001124 
-1.151000 -2.522000 -0.443000 -0.583868 -0.776787 -0.236008 
-0.960000 -2.834000 -0.251000 -0.712991 -0.602193 -0.359177 
-1.500000 -2.335000 -1.249000 0.105736 -0.993568 -0.040524 
-1.209000 -2.349000 -0.955000 -0.078500 -0.962508 -0.259647 
-0.932000 -2.528000 -0.707000 -0.354219 -0.782167 -0.512585 
-0.715000 -2.841000 -0.546000 -0.466802 -0.605725 -0.644355 
-1.167000 -2.211000 -1.513000 0.314397 -0.919269 -0.236854 
-0.936000 -2.247000 -1.172000 0.175530 -0.869076 -0.462489 
-0.674000 -2.432000 -0.911000 -0.082201 -0.681571 -0.727120 
-0.426000 -2.733000 -0.774000 -0.176932 -0.505231 -0.844652 
-0.657000 -2.051000 -1.299000 0.313643 -0.758322 -0.571469 
-0.411000 -2.247000 -1.030000 0.095580 -0.545322 -0.832759 
-1.033000 -1.975000 -2.014000 0.394610 -0.851196 -0.346046 
-0.722000 -1.792000 -2.169000 0.298204 -0.878518 -0.373203 
-1.232000 -1.858000 -2.346000 0.282958 -0.775882 -0.563864 
-0.894000 -1.690000 -2.456000 0.180526 -0.789973 -0.585964 
-1.405000 -1.630000 -2.631000 0.166774 -0.623074 -0.764176 
-1.044000 -1.493000 -2.703000 0.052909 -0.634498 -0.771111 
-1.538000 -1.312000 -2.843000 0.104341 -0.426354 -0.898518 
-1.159000 -1.218000 -2.887000 -0.015870 -0.432704 -0.901396 
-1.617000 -0.934000 -2.963000 0.072821 -0.193800 -0.978335 
-1.228000 -0.890000 -2.991000 -0.054392 -0.173656 -0.983303 
-1.635000 -0.531000 -2.979000 0.112741 0.062692 -0.991645 
-1.244000 -0.541000 -3.005000 -0.062305 0.099650 -0.993070 
-1.592000 -0.139000 -2.891000 0.057733 0.317487 -0.946503 
-1.206000 -0.201000 -2.928000 -0.037530 0.364874 -0.930300 
-1.489000 0.206000 -2.706000 0.103474 0.548753 -0.829556 
-1.117000 0.097000 -2.768000 0.015134 0.600226 -0.799687 
-1.338000 0.471000 -2.441000 0.196262 0.725399 -0.659756 
-0.986000 0.327000 -2.539000 0.092841 0.789191 -0.607090 
-1.152000 0.633000 -2.121000 0.304956 0.828097 -0.470380 
-0.825000 0.467000 -2.261000 0.233232 0.894561 -0.381266 
-0.948000 0.677000 -1.775000 0.445354 0.864160 -0.234281 
-0.648000 0.505000 -1.962000 0.393295 0.905932 -0.156864 
-0.647000 0.621000 -1.114000 0.458867 0.814389 -0.355263 
-0.485000 0.726000 -0.838000 0.308157 0.702229 -0.641805 
-0.279000 0.901000 -0.639000 0.126294 0.541362 -0.831250 
-1.058000 0.822000 -1.320000 0.439171 0.888787 -0.131100 
-0.916000 0.813000 -1.015000 0.335174 0.887057 -0.317473 
-0.737000 0.906000 -0.746000 0.153706 0.795815 -0.585707 
-0.540000 1.088000 -0.543000 -0.045131 0.615303 -0.786998 
-0.348000 1.340000 -0.429000 -0.180108 0.481298 -0.857854 
-1.386000 0.947000 -1.127000 0.234589 0.971878 -0.020516 
-1.199000 0.922000 -0.849000 0.096718 0.979146 -0.178661 
-1.001000 1.007000 -0.591000 -0.103762 0.894981 -0.433869 
-0.815000 1.193000 -0.382000 -0.292067 0.708212 -0.642754 
-0.662000 1.460000 -0.246000 -0.404245 0.565597 -0.718809 
-1.467000 0.935000 -0.633000 -0.048793 0.988394 -0.143862 
-1.252000 1.019000 -0.389000 -0.273998 0.887697 -0.370025 
-1.076000 1.206000 -0.172000 -0.448653 0.703073 -0.551724 
-2.064000 0.962000 -0.887000 -0.094930 0.993748 0.058757 
-2.074000 0.969000 -0.371000 -0.138404 0.985838 -0.094693 
-2.664000 0.797000 -0.582000 -0.178922 0.979638 -0.091079 
-2.758000 0.779000 -0.660000 -0.026011 0.994668 -0.099799 
-2.860000 0.957000 0.062000 0.035294 0.990051 -0.136209 
-2.358000 0.967000 -0.036000 -0.115809 0.990496 -0.074207 
-2.786000 0.958000 0.418000 0.068662 0.994417 0.080123 
-2.287000 0.968000 0.307000 -0.089967 0.982628 0.162320 
-2.399000 0.810000 0.846000 -0.017364 0.945795 0.324298 
-2.093000 0.846000 0.948000 -0.322749 0.914785 0.242901 
-2.513000 0.676000 1.235000 -0.082853 0.949065 0.303992 
-2.207000 0.712000 1.337000 -0.383036 0.897678 0.217848 
-3.175000 0.875000 1.004000 0.141991 0.956029 0.256606 
-3.419000 0.832000 1.466000 0.183632 0.979499 0.082832 
-3.544000 0.912000 0.818000 -0.097562 0.985575 0.138286 
-3.776000 0.867000 1.286000 -0.055560 0.996903 -0.055650 
-2.697000 0.579000 1.559000 0.152687 0.952606 0.263113 
-2.294000 0.630000 1.502000 -0.242442 0.929526 0.277855 
-2.646000 0.493000 1.858000 0.069453 0.953262 0.294054 
-2.242000 0.543000 1.805000 -0.328557 0.892932 0.307770 
-2.680000 0.449000 2.011000 0.192835 0.918229 0.345932 
-2.310000 0.437000 2.081000 -0.159456 0.939330 0.303698 
-3.087000 0.471000 2.315000 0.368855 0.797717 0.477068 
-2.732000 0.342000 2.301000 0.131152 0.858621 0.495550 
-2.360000 0.335000 2.358000 -0.241092 0.863955 0.442104 
-2.021000 0.450000 2.478000 -0.471116 0.788144 0.396079 
-3.129000 0.247000 2.603000 0.345022 0.648703 0.678340 
-2.768000 0.151000 2.547000 0.098000 0.681619 0.725115 
-2.394000 0.152000 2.593000 -0.276471 0.678808 0.680282 
-2.059000 0.250000 2.737000 -0.494424 0.609256 0.619961 
-3.148000 -0.054000 2.814000 0.340486 0.427812 0.837285 
-2.785000 -0.105000 2.726000 0.082984 0.443101 0.892623 
-2.410000 -0.093000 2.765000 -0.292286 0.428325 0.855048 
-2.076000 -0.021000 2.926000 -0.503156 0.368409 0.781735 
-3.142000 -0.404000 2.925000 0.333954 0.177162 0.925791 
-2.780000 -0.403000 2.821000 0.086985 0.163830 0.982646 
-2.405000 -0.379000 2.856000 -0.287239 0.135693 0.948199 
-2.071000 -0.335000 3.026000 -0.498965 0.092124 0.861712 
-3.112000 -0.771000 2.928000 0.349481 -0.074237 0.933998 
-2.754000 -0.715000 2.823000 0.110640 -0.126974 0.985716 
-2.381000 -0.678000 2.858000 -0.263113 -0.167187 0.950168 
-2.044000 -0.664000 3.029000 -0.480109 -0.195525 0.855141 
-3.061000 -1.120000 2.822000 0.374311 -0.318072 0.871046 
-2.711000 -1.012000 2.733000 0.151329 -0.403480 0.902387 
-2.339000 -0.962000 2.772000 -0.221015 -0.456187 0.862001 
-1.998000 -0.977000 2.934000 -0.448415 -0.467298 0.761943 
-2.993000 -1.417000 2.617000 0.414637 -0.549204 0.725569 
-2.653000 -1.265000 2.558000 0.203943 -0.640092 0.740736 
-2.283000 -1.205000 2.605000 -0.163696 -0.703753 0.691329 
-1.937000 -1.244000 2.749000 -0.399716 -0.696365 0.596073 
-2.586000 -1.452000 2.316000 0.191396 -0.775042 0.602227 
-2.220000 -1.383000 2.372000 -0.174932 -0.805981 0.565503 
-2.613000 -1.553000 2.194000 0.292058 -0.837673 0.461526 
-2.276000 -1.553000 2.130000 -0.023804 -0.865571 0.500221 
-1.944000 -1.637000 2.148000 -0.358607 -0.813466 0.457901 
-1.657000 -1.796000 2.246000 -0.634774 -0.666981 0.390126 
-1.447000 -2.010000 2.412000 -0.854351 -0.432168 0.288644 
-2.605000 -1.711000 1.825000 0.222722 -0.917262 0.330190 
-2.271000 -1.660000 1.882000 -0.087401 -0.954360 0.285583 
-1.940000 -1.726000 1.942000 -0.426078 -0.870344 0.246901 
-1.652000 -1.901000 2.000000 -0.707519 -0.686422 0.168050 
-1.439000 -2.166000 2.049000 -0.893329 -0.441873 0.081921 
-1.419000 -1.934000 2.549000 -0.882725 -0.266906 0.386726 
-1.602000 -1.652000 2.502000 -0.717336 -0.524395 0.458735 
-1.218000 -2.110000 2.973000 -0.882714 -0.060340 0.466021 
-1.312000 -1.807000 2.853000 -0.805188 -0.220343 0.550565 
-1.499000 -1.529000 2.795000 -0.617333 -0.496658 0.610108 
-1.756000 -1.309000 2.808000 -0.434176 -0.638945 0.635012 
-1.012000 -1.907000 3.242000 -0.742615 0.085806 0.664199 
-1.131000 -1.629000 3.089000 -0.643618 -0.061670 0.762858 
-1.325000 -1.358000 3.023000 -0.448801 -0.331133 0.830017 
-1.570000 -1.125000 3.053000 -0.290867 -0.454827 0.841742 
-0.897000 -1.419000 3.232000 -0.501278 0.002125 0.865284 
-1.098000 -1.155000 3.161000 -0.299211 -0.241457 0.923131 
-0.617000 -1.969000 3.600000 -0.594939 0.096219 0.797991 
-0.373000 -1.728000 3.782000 -0.644260 0.008223 0.764762 
-0.402000 -2.256000 3.728000 -0.461993 -0.095325 0.881746 
-0.178000 -1.988000 3.898000 -0.483250 -0.166959 0.859415 
-0.118000 -2.503000 3.780000 -0.277550 -0.270643 0.921802 
0.081000 -2.213000 3.946000 -0.283604 -0.337060 0.897753 
0.213000 -2.690000 3.752000 -0.041982 -0.425144 0.904152 
0.381000 -2.383000 3.920000 -0.019299 -0.509752 0.860105 
0.561000 -2.802000 3.646000 0.219416 -0.497836 0.839056 
0.697000 -2.484000 3.823000 0.235839 -0.575647 0.782950 
0.897000 -2.827000 3.470000 0.479387 -0.519330 0.707449 
1.003000 -2.508000 3.663000 0.488060 -0.594778 0.638777 
1.444000 -2.757000 3.038000 0.435162 -0.477952 0.763018 
1.742000 -2.787000 2.920000 0.166912 -0.445515 0.879578 
1.109000 -3.078000 3.086000 0.557208 -0.556691 0.616129 
1.369000 -3.035000 2.901000 0.393750 -0.605098 0.691966 
1.669000 -3.054000 2.788000 0.093149 -0.587729 0.803677 
1.979000 -3.134000 2.758000 -0.061801 -0.570442 0.819010 
1.011000 -3.329000 2.849000 0.498410 -0.743711 0.445513 
1.281000 -3.258000 2.691000 0.317549 -0.800077 0.508960 
1.584000 -3.269000 2.586000 0.014138 -0.790286 0.612575 
1.889000 -3.362000 2.543000 -0.151226 -0.754932 0.638129 
0.907000 -3.497000 2.550000 0.400739 -0.890550 0.215242 
1.189000 -3.407000 2.426000 0.236647 -0.931928 0.274786 
1.495000 -3.413000 2.329000 -0.070756 -0.926338 0.369990 
1.795000 -3.515000 2.271000 -0.256191 -0.885225 0.388256 
0.806000 -3.567000 2.214000 0.335649 -0.941537 -0.029100 
1.099000 -3.469000 2.127000 0.157145 -0.987469 0.014477 
1.409000 -3.474000 2.041000 -0.152744 -0.983407 0.097877 
1.703000 -3.579000 1.965000 -0.314431 -0.942109 0.116462 
0.717000 -3.535000 1.868000 0.290648 -0.917078 -0.272933 
1.021000 -3.441000 1.820000 0.088301 -0.963180 -0.253942 
1.333000 -3.446000 1.745000 -0.224311 -0.957143 -0.183200 
1.622000 -3.550000 1.651000 -0.393910 -0.907370 -0.146678 
0.959000 -3.323000 1.530000 0.061716 -0.935116 -0.348926 
1.274000 -3.332000 1.466000 -0.257231 -0.909855 -0.325571 
0.350000 -3.308000 1.082000 0.150719 -0.974694 -0.165091 
0.066000 -3.502000 1.529000 0.008950 -0.921556 -0.388143 
0.034000 -3.355000 1.107000 -0.008747 -0.993920 -0.109753 
-0.001000 -3.406000 0.663000 -0.016525 -0.988494 0.150357 
-0.295000 -3.448000 1.556000 -0.262394 -0.897673 -0.354023 
-0.282000 -3.307000 1.131000 -0.294793 -0.951451 -0.088531 
-0.329000 -3.357000 0.688000 -0.299236 -0.939590 0.166219 
-0.626000 -3.291000 1.578000 -0.514395 -0.789921 -0.333800 
-0.572000 -3.170000 1.150000 -0.555817 -0.828330 -0.070268 
-0.630000 -3.215000 0.708000 -0.549019 -0.812713 0.195131 
-0.809000 -2.955000 1.164000 -0.688789 -0.724799 -0.015373 
0.867000 -3.130000 0.650000 0.452882 -0.870360 -0.193317 
1.137000 -3.107000 0.842000 0.187850 -0.917968 -0.349352 
1.412000 -3.190000 1.009000 -0.091994 -0.857813 -0.505663 
1.131000 -2.854000 0.294000 0.491802 -0.795321 -0.354393 
1.383000 -2.850000 0.512000 0.269866 -0.782159 -0.561605 
1.677000 -2.915000 0.654000 -0.016283 -0.699396 -0.714549 
1.290000 -2.652000 0.153000 0.488810 -0.760018 -0.428297 
1.280000 -2.529000 -0.081000 0.428483 -0.775897 -0.463018 
1.173000 -2.513000 -0.230000 0.546755 -0.664301 -0.509669 
1.486000 -2.325000 -0.300000 0.248365 -0.856078 -0.453261 
0.790000 -2.669000 -0.521000 0.595988 -0.461721 -0.656971 
1.044000 -2.398000 -0.497000 0.430058 -0.599958 -0.674611 
1.357000 -2.210000 -0.568000 0.115484 -0.785428 -0.608085 
1.686000 -2.130000 -0.721000 -0.077313 -0.838514 -0.539367 
0.604000 -2.442000 -0.743000 0.428301 -0.236040 -0.872263 
0.883000 -2.201000 -0.690000 0.250122 -0.381038 -0.890083 
1.196000 -2.013000 -0.760000 -0.064609 -0.565751 -0.822041 
1.500000 -1.903000 -0.944000 -0.268990 -0.597719 -0.755233 
0.710000 -1.949000 -0.782000 0.126142 -0.277664 -0.952361 
1.024000 -1.761000 -0.852000 -0.201511 -0.429448 -0.880323 
0.182000 -1.919000 -0.975000 0.473322 -0.212953 -0.854761 
0.029000 -1.703000 -1.196000 0.624015 -0.433051 -0.650440 
-0.037000 -1.528000 -1.485000 0.688913 -0.620054 -0.375410 
0.166000 -2.374000 -0.918000 0.279047 -0.182698 -0.942738 
-0.013000 -2.101000 -1.031000 0.343738 -0.352454 -0.870414 
-0.151000 -1.870000 -1.247000 0.478033 -0.585053 -0.655131 
-0.232000 -1.709000 -1.541000 0.557193 -0.748464 -0.359635 
-0.246000 -1.637000 -1.878000 0.559733 -0.807239 -0.187253 
-0.255000 -2.225000 -1.022000 0.177168 -0.487530 -0.854942 
-0.374000 -1.984000 -1.239000 0.294313 -0.702640 -0.647825 
-0.474000 -1.833000 -1.533000 0.412138 -0.843939 -0.343380 
0.180000 -1.266000 -1.560000 0.693132 -0.627967 -0.353872 
0.437000 -1.212000 -1.335000 0.475243 -0.653945 -0.588643 
0.733000 -1.256000 -1.163000 0.175560 -0.629967 -0.756519 
1.033000 -1.395000 -1.064000 -0.117431 -0.518472 -0.846993 
0.201000 -0.984000 -2.054000 0.913568 -0.294008 -0.280984 
0.328000 -0.959000 -1.734000 0.817099 -0.309119 -0.486616 
0.554000 -0.969000 -1.473000 0.593363 -0.291888 -0.750148 
0.850000 -1.014000 -1.301000 0.298198 -0.240608 -0.923681 
1.181000 -1.088000 -1.239000 -0.032781 -0.160476 -0.986495 
1.509000 -1.182000 -1.294000 -0.252161 -0.050845 -0.966349 
0.357000 -0.580000 -1.684000 0.850339 0.080926 -0.519975 
0.576000 -0.670000 -1.433000 0.626066 0.136640 -0.767705 
0.872000 -0.715000 -1.261000 0.341569 0.187542 -0.920955 
1.210000 -0.709000 -1.189000 -0.001453 0.225649 -0.974208 
0.300000 -0.220000 -1.711000 0.852454 0.148219 -0.501351 
0.481000 0.006000 -1.488000 0.651981 -0.028548 -0.757698 
0.762000 0.192000 -1.347000 0.383813 -0.163255 -0.908865 
1.103000 0.315000 -1.305000 0.071464 -0.323706 -0.943455 
1.460000 0.357000 -1.369000 -0.279877 -0.423389 -0.861633 
0.008000 0.050000 -2.082000 0.760891 0.562612 -0.323285 
0.181000 0.037000 -1.760000 0.625784 0.585856 -0.514943 
0.436000 0.104000 -1.507000 0.364782 0.525370 -0.768713 
0.738000 0.243000 -1.357000 0.054636 0.396394 -0.916453 
1.048000 0.434000 -1.328000 -0.262610 0.211456 -0.941447 
1.324000 0.652000 -1.426000 -0.544713 0.000025 -0.838623 
1.530000 0.868000 -1.637000 -0.720804 -0.137039 -0.679458 
0.039000 0.179000 -1.555000 0.315378 0.913403 -0.257356 
0.381000 0.159000 -1.428000 -0.012411 0.922880 -0.384889 
0.710000 0.271000 -1.316000 -0.332375 0.793504 -0.509782 
0.983000 0.500000 -1.233000 -0.589519 0.559138 -0.582951 
1.162000 0.815000 -1.190000 -0.768601 0.269356 -0.580258 
-0.264000 0.347000 -1.298000 0.428035 0.882077 -0.196787 
-0.179000 0.482000 -0.952000 0.360359 0.763071 -0.536529 
-0.026000 0.713000 -0.690000 0.198029 0.538668 -0.818915 
-0.426000 0.433000 -1.288000 0.450284 0.852608 -0.265148 
-0.329000 0.562000 -0.943000 0.339066 0.726955 -0.597135 
-0.198000 0.805000 -0.680000 0.178005 0.500237 -0.847394 
0.505000 1.035000 -0.566000 -0.214752 0.283759 -0.934538 
0.812000 1.076000 -0.689000 -0.534009 0.236368 -0.811766 
1.061000 1.124000 -0.906000 -0.756977 0.200601 -0.621888 
0.184000 1.440000 -0.419000 0.026452 0.425420 -0.904609 
0.515000 1.408000 -0.452000 -0.210975 0.456368 -0.864418 
0.822000 1.428000 -0.581000 -0.517188 0.440902 -0.733568 
1.072000 1.496000 -0.792000 -0.766798 0.375067 -0.520908 
1.236000 1.607000 -1.061000 -0.868134 0.353532 -0.348365 
0.603000 1.715000 -0.228000 -0.220650 0.654208 -0.723413 
0.906000 1.717000 -0.370000 -0.522868 0.609708 -0.595706 
1.160000 1.803000 -0.568000 -0.753803 0.510186 -0.414114 
0.613000 1.824000 -0.123000 -0.113999 0.693366 -0.711512 
0.924000 1.923000 -0.168000 -0.411907 0.630122 -0.658239 
0.592000 1.943000 -0.005000 -0.178353 0.672362 -0.718414 
0.903000 2.044000 -0.048000 -0.462756 0.562310 -0.685321 
0.595000 2.057000 0.100000 -0.192940 0.682540 -0.704921 
0.903000 2.281000 0.122000 -0.512382 0.489666 -0.705473 
0.110000 2.118000 0.221000 -0.053253 0.849365 -0.525112 
0.464000 2.223000 0.316000 -0.282600 0.774359 -0.566133 
0.777000 2.442000 0.330000 -0.597208 0.556891 -0.577248 
1.003000 2.741000 0.259000 -0.752845 0.399762 -0.522891 
0.013000 2.246000 0.538000 -0.133952 0.941353 -0.309696 
0.382000 2.332000 0.586000 -0.363224 0.879374 -0.307847 
0.698000 2.547000 0.589000 -0.679413 0.665973 -0.308022 
0.915000 2.858000 0.548000 -0.815830 0.513176 -0.266593 
-0.019000 2.296000 0.889000 -0.158474 0.985554 -0.059748 
0.355000 2.375000 0.884000 -0.389031 0.920974 -0.021478 
0.672000 2.588000 0.876000 -0.705815 0.708336 -0.009207 
0.886000 2.904000 0.867000 -0.851262 0.524171 0.024442 
0.019000 2.263000 1.242000 -0.135899 0.966968 0.215647 
0.387000 2.346000 1.183000 -0.358132 0.894470 0.267704 
0.703000 2.560000 1.164000 -0.673813 0.679539 0.290178 
0.920000 2.873000 1.187000 -0.804883 0.512561 0.299074 
0.122000 2.149000 1.563000 -0.066491 0.887725 0.455547 
0.474000 2.250000 1.456000 -0.274383 0.802223 0.530238 
0.787000 2.467000 1.427000 -0.586520 0.582456 0.562796 
1.014000 2.770000 1.480000 -0.727494 0.395882 0.560384 
0.609000 2.093000 1.677000 -0.271512 0.709307 0.650511 
0.917000 2.317000 1.640000 -0.543276 0.475280 0.692070 
0.520000 1.536000 2.311000 -0.301340 0.656228 0.691780 
-0.067000 1.363000 2.311000 -0.158961 0.470033 0.868217 
0.320000 1.241000 2.486000 -0.432760 0.500302 0.749945 
0.622000 1.217000 2.806000 -0.631818 0.514153 0.580045 
0.196000 0.872000 2.565000 -0.518609 0.338435 0.785179 
-0.416000 0.710000 2.445000 -0.079690 0.433517 0.897615 
-0.617000 0.510000 2.582000 0.134416 0.601818 0.787241 
-0.530000 1.168000 2.276000 -0.283821 0.352100 0.891892 
-0.704000 0.911000 2.333000 -0.180109 0.503428 0.845057 
-0.895000 0.705000 2.474000 0.009049 0.711118 0.703015 
-1.086000 0.569000 2.684000 0.086047 0.809365 0.580968 
-0.990000 1.028000 2.131000 -0.243694 0.581766 0.775991 
-1.171000 0.817000 2.279000 -0.133733 0.802145 0.581962 
-1.050000 1.397000 1.806000 -0.584886 0.561160 0.585669 
-1.412000 0.984000 1.923000 -0.495387 0.701494 0.512346 
-1.204000 1.457000 1.520000 -0.700842 0.589778 0.401226 
-1.573000 1.046000 1.624000 -0.580624 0.742888 0.333156 
-1.304000 1.475000 1.207000 -0.776256 0.606866 0.170707 
-1.678000 1.065000 1.295000 -0.642860 0.757992 0.110355 
-1.529000 1.195000 0.751000 -0.703353 0.709333 -0.046266 
-1.795000 1.020000 0.632000 -0.448327 0.891369 0.066820 
-1.259000 1.527000 0.573000 -0.789642 0.587970 -0.175373 
-1.449000 1.266000 0.468000 -0.651999 0.747309 -0.128168 
-1.714000 1.091000 0.348000 -0.385955 0.922464 -0.009966 
